6.7492048748 -1.9684912213 1.3665740898
4.2469764315 -1.2386845528 -0.2318482972
5.7077882685 -1.6647488568 1.3726513988
9.0283948133 -2.6332458803 -0.1641573427
4.9183452557 -1.4344977873 1.3727762804
3.8572801398 -1.1396497992 -1.0777225550
9.0479140059 -2.6732446195 0.1646809150
3.9508049908 -1.1672821136 -0.9510931029
9.0330597023 -2.6688558524 0.4936327627
4.0160037515 -1.1865453643 -0.8139912129
9.0320536005 -2.6685585954 0.8239704311
4.0938447772 -1.2095438259 -0.6761097900
9.0389523722 -2.6705968668 1.1572713399
4.1311134473 -1.2205550128 -0.5289129755
8.2577831484 -2.4397971019 1.3637957310
4.1845139380 -1.2363324146 -0.3817421714
6.7498234643 -1.9942640090 1.3681005618
4.2522036767 -1.2563316354 -0.2323716568
5.7075489318 -1.6863195718 1.3740011052
9.0229833400 -2.6658787484 -0.1642271524
4.9040444429 -1.4489207581 1.3701880899
3.8588308558 -1.1547686087 -1.0792754693
9.0366119078 -2.7042376695 0.1646460101
3.9541741601 -1.1833004255 -0.9528927115
9.0217753482 -2.6997977772 0.4935280908
4.0118375324 -1.2005563910 -0.8139912129
9.0322274839 -2.7029256153 0.8248419885
4.0706732436 -1.2181631830 -0.6729811006
9.0466912007 -2.7072539331 1.1594649882
4.1363366327 -1.2378131815 -0.5301316690
8.2473240332 -2.4680405168 1.3634828621
4.1782641509 -1.2503601378 -0.3815678599
6.7352977981 -2.0155613859 1.3665740898
4.2458790027 -1.2705941183 -0.2322669848
5.6792246435 -1.6995278066 1.3686022796
9.0193701213 -2.6990780047 -0.1643318668
4.8952554501 -1.4649222878 1.3691528136
3.8566251720 -1.1687920178 -1.0797931075
9.0271170841 -2.7357655777 0.1646460101
3.9313697234 -1.1914441635 -0.9483936902
9.0352330281 -2.7382252024 0.4947841538
4.0113800030 -1.2156921450 -0.8147544490
9.0418047590 -2.7402168366 0.8265851035
4.0682866299 -1.2329383145 -0.6732939695
9.0371857866 -2.7388170070 1.1594649882
4.1300907925 -1.2516687352 -0.5298879303
8.2367680513 -2.4962417455 1.3631699931
4.1853145183 -1.2684048833 -0.3826137288
6.7244632462 -2.0379213991 1.3658108538
4.2261265549 -1.2807734129 -0.2314296095
5.6993671133 -1.7272549163 1.3749009095
9.0213758606 -2.7340256378 -0.1645412957
4.8956584159 -1.4836822930 1.3707057280
3.8523154498 -1.1829193436 -1.0797931075
9.0361454387 -2.7747029988 0.1649950583
3.9232506912 -1.2047012226 -0.9474938859
9.0251362874 -2.7713224506 0.4947841538
4.0068973445 -1.2303863581 -0.8147544490
9.0412237667 -2.7762623863 0.8274566609
4.0675170895 -1.2490006876 -0.6739197074
9.0289845065 -2.7725041121 1.1597087269
4.1102943340 -1.2621361721 -0.5279380207
8.2388937147 -2.5298932218 1.3650472068
4.1806374906 -1.2837362414 -0.3826137288
6.7282093584 -2.0660117536 1.3681005618
4.2347688355 -1.3003581966 -0.2321623129
5.6874094777 -1.7464163498 1.3735512031
9.0323222335 -2.7735290183 -0.1649252487
4.8975745796 -1.5038840361 1.3727762804
3.8502165319 -1.1962604256 -1.0803107456
9.0440815726 -2.8099917970 0.1653092016
3.9304002065 -1.2211734548 -0.9501932987
9.0101749244 -2.7994570177 0.4944701381
3.9971707809 -1.2419190402 -0.8136095949
9.0338705598 -2.8068192403 0.8276309724
4.0708986917 -1.2648262666 -0.6751711832
9.0197411609 -2.8024292428 1.1597087269
4.1117735557 -1.2775260672 -0.5286692368
8.2210271078 -2.5542691704 1.3634828621
4.1877736104 -1.3011392476 -0.3836595978
6.7175717205 -2.0871463043 1.3673373258
4.2361554841 -1.3161714726 -0.2324763287
5.6629771915 -1.7594842911 1.3690521818
9.0230754709 -2.8034652113 -0.1649252487
4.8980953005 -1.5218358553 1.3743291948
3.8331173361 -1.2056357805 -1.0766872788
8.9941587247 -2.8289453788 0.1645762005
3.9279724269 -1.2354706855 -0.9506432008
8.9412854752 -2.8123150813 0.4912253086
3.9853200190 -1.2535083042 -0.8120831229
8.9403915566 -2.8120339159 0.8199612667
4.0683430852 -1.2796216658 -0.6754840521
8.9190093171 -2.8053085300 1.1480092694
4.1110762691 -1.2930625942 -0.5291567142
8.2177138465 -2.5847290805 1.3644214689
4.1603990471 -1.3085761569 -0.3815678599
6.7252275320 -2.1152952633 1.3703902699
4.2372509901 -1.3327485065 -0.2327903444
5.6679545337 -1.7827497019 1.3717515945
8.9178562117 -2.8049458422 -0.1631800079
4.8816960689 -1.5354467224 1.3712233661
3.8233631630 -1.2172501228 -1.0751343644
8.8775236337 -2.8263511137 0.1626215309
3.9292066743 -1.2509476874 -0.9519929072
8.8343544372 -2.8126072689 0.4858870408
3.9902739120 -1.2703897596 -0.8139912129
8.8261041741 -2.8099806197 0.8103741346
4.0469110971 -1.2884214290 -0.6726682316
8.7843210049 -2.7966780467 1.1319225153
4.1065376619 -1.3074048319 -0.5291567142
8.2048769639 -2.6121995391 1.3637957310
4.1633999685 -1.3255081736 -0.3822651058
6.7065785159 -2.1351839138 1.3681005618
4.2287668159 -1.3463191192 -0.2325810006
5.6672678497 -1.8042969480 1.3731013009
8.7993999014 -2.8014787386 -0.1611904335
4.8799883221 -1.5536495309 1.3722586423
3.8338008026 -1.2353289112 -1.0792754693
8.7286605957 -2.8125526978 0.1600734794
3.9192515289 -1.2628628803 -0.9506432008
8.7085210236 -2.8060633164 0.4795020539
3.9783404404 -1.2819025343 -0.8124647409
8.7100445832 -2.8065542384 0.8006126909
4.0386285460 -1.3013285931 -0.6720424937
8.6630287640 -2.7914047813 1.1175419321
4.1000594150 -1.3211228736 -0.5289129755
8.2107499350 -2.6456713063 1.3662986826
4.1454729935 -1.3357560560 -0.3810449254
6.6916097309 -2.1561733091 1.3665740898
4.2088333434 -1.3561720547 -0.2317436253
5.6702091452 -1.8270571817 1.3753508116
8.6753674215 -2.7953805487 -0.1590961446
4.8745352172 -1.5706747931 1.3722586423
3.8331387578 -1.2499014407 -1.0803107456
8.6161264619 -2.8095275329 0.1581886195
3.9111140444 -1.2753274503 -0.9497433966
8.5828427308 -2.7986744473 0.4731170669
3.9813077157 -1.2982160480 -0.8139912129
8.5903296705 -2.8011157720 0.7905026243
4.0415737457 -1.3178674623 -0.6732939695
8.5494312731 -2.7877797127 1.1041363037
4.0859864694 -1.3323494654 -0.5276942820
8.1995868838 -2.6737032251 1.3659858136
4.1540447558 -1.3545417614 -0.3822651058
6.6915087485 -2.1819524295 1.3681005618
4.2040738509 -1.3708551385 -0.2317436253
5.6637970790 -1.8468384726 1.3753508116
8.5704982546 -2.7946491877 -0.1573509039
4.8763696224 -1.5900758625 1.3743291948
3.8269179297 -1.2626684671 -1.0797931075
8.4961250517 -2.8032451681 0.1561641402
3.9010867305 -1.2871400151 -0.9483936902
8.4649102845 -2.7929460440 0.4671507676
3.9655655478 -1.3084144116 -0.8117015049
8.4707601892 -2.7948761848 0.7803925576
4.0369489781 -1.3319669435 -0.6732939695
8.4435064356 -2.7858839733 1.0917056301
4.0869662765 -1.3484698491 -0.5284254981
8.1845763901 -2.7004515680 1.3650472068
4.1473992260 -1.3684093360 -0.3820907944
6.6913092388 -2.2077570866 1.3696270339
4.2030565069 -1.3867731198 -0.2319529691
5.6536147825 -1.8653760655 1.3744510073
8.4429530577 -2.7857013896 -0.1551868054
4.8726241713 -1.6076929283 1.3748468329
3.8151571845 -1.2735726908 -1.0777225550
8.3952414618 -2.8024927261 0.1544887091
3.9058122411 -1.3038350886 -0.9506432008
8.3717517227 -2.7946514003 0.4625452032
3.9572495937 -1.3210058641 -0.8109382689
8.3570095139 -2.7897301681 0.7708054255
4.0360223111 -1.3473017090 -0.6739197074
8.3395827517 -2.7839127804 1.0795186952
4.0878830783 -1.3646138285 -0.5291567142
8.1750999737 -2.7290052723 1.3650472068
4.1407073372 -1.3822475799 -0.3819164829
6.6910107248 -2.2335877975 1.3711535059
4.2057680073 -1.4039660803 -0.2323716568
5.6378264721 -1.8820146807 1.3722014967
8.3440278334 -2.7853966340 -0.1535462791
4.8578202191 -1.6216336231 1.3722586423
3.7997066005 -1.2831735186 -1.0746167263
8.2755223419 -2.7946713361 0.1524642299
3.9012372820 -1.3174607664 -0.9506432008
8.2597630796 -2.7893493809 0.4568929197
3.9600546002 -1.3373235698 -0.8124647409
8.2471749355 -2.7850983229 0.7615669163
4.0200656007 -1.3575894837 -0.6720424937
8.2282542580 -2.7787087474 1.0663568054
4.0812141120 -1.3782395387 -0.5289129755
8.1636527701 -2.7568926107 1.3647343378
4.1283066111 -1.3941428318 -0.3812192369
6.6720130817 -2.2531609417 1.3688637978
4.2008417037 -1.4186381731 -0.2323716568
5.5942967176 -1.8892125519 1.3632034541
8.2262632804 -2.7780363876 -0.1515567047
4.8484695495 -1.6373442442 1.3712233661
3.8043449017 -1.2995518772 -1.0772049169
8.1635304202 -2.7886355091 0.1505793699
3.8837058079 -1.3266613053 -0.9474938859
8.1724847043 -2.7916942635 0.4526013711
3.9535043860 -1.3505042731 -0.8120831229
8.1506733105 -2.7842435621 0.7535485876
4.0115634852 -1.3703370731 -0.6714167558
8.1245786361 -2.7753297060 1.0541698705
4.0744996675 -1.3918358688 -0.5286692368
8.1128543923 -2.7713247424 1.3578512210
4.1271857221 -1.4098332541 -0.3815678599
6.6585337028 -2.2745335127 1.3677189438
4.1826338230 -1.4287741455 -0.2316389533
5.5766032114 -1.9049495666 1.3605040413
8.0878370459 -2.7627788980 -0.1491831773
4.8463807470 -1.6555079415 1.3722586423
3.8034373959 -1.3140851230 -1.0782401931
8.0705837568 -2.7883813889 0.1490435581
3.8790513063 -1.3402096794 -0.9474938859
8.0588632300 -2.7843319546 0.4468444156
3.9561887259 -1.3668606072 -0.8136095949
8.0636953791 -2.7860014589 0.7464018163
4.0104899120 -1.3856216314 -0.6720424937
8.0285334375 -2.7738530312 1.0429578904
4.0658639774 -1.4047533346 -0.5281817594
8.0247139860 -2.7725334132 1.3447107254
4.1222394173 -1.4242310120 -0.3815678599
6.6598317716 -2.3009675043 1.3696270339
4.1776210654 -1.4433653351 -0.2316389533
5.5662360150 -1.9231308884 1.3596042370
7.9571797696 -2.7492003858 -0.1469492692
4.8460503354 -1.6743072090 1.3738115567
3.8006510105 -1.3279906205 -1.0787578312
7.9871782254 -2.7908107685 0.1476822703
3.8743495411 -1.3537417239 -0.9474938859
7.9623632746 -2.7821401429 0.4420295074
3.9458333409 -1.3787189753 -0.8124647409
7.9674010344 -2.7839003934 0.7383834876
4.0130881028 -1.4022185528 -0.6732939695
7.9325985919 -2.7717400248 1.0317459103
4.0534398191 -1.4163179007 -0.5272068046
7.9142871320 -2.7653417928 1.3278158023
4.1247663995 -1.4412402178 -0.3822651058
6.6517594460 -2.3242002829 1.3696270339
4.1763283574 -1.4592565514 -0.2318482972
5.5558098832 -1.9412630609 1.3587044328
7.9513104905 -2.7782781746 -0.1470190788
4.8420002077 -1.6918498548 1.3743291948
3.7795987558 -1.3354572364 -1.0740990882
7.9019691321 -2.7920270222 0.1462860777
3.8751126388 -1.3692054500 -0.9488435923
7.8697438277 -2.7806407564 0.4374239431
3.9280388476 -1.3879060299 -0.8097934148
7.8637060007 -2.7785073924 0.7296679129
4.0044438203 -1.4149024336 -0.6726682316
7.8423920792 -2.7709764791 1.0212651462
4.0597012935 -1.4344267263 -0.5286692368
7.8189093757 -2.7626792633 1.3134238309
4.1046817037 -1.4503197928 -0.3808706139
6.6510101694 -2.3500218499 1.3711535059
4.1730922044 -1.4744914851 -0.2319529691
5.5692111940 -1.9677864955 1.3636533562
7.8510616717 -2.7740397329 -0.1453436477
4.8306004339 -1.7068108872 1.3727762804
3.7824269573 -1.3505816746 -1.0761696407
7.7985051441 -2.7845926058 0.1445408370
3.8723862625 -1.3827032174 -0.9492934944
7.7908848144 -2.7818716338 0.4335510821
3.9345084534 -1.4048850317 -0.8120831229
7.7718892496 -2.7750889353 0.7219982072
3.9922885882 -1.4255164391 -0.6714167558
7.7434248350 -2.7649252184 1.0095656887
4.0586613512 -1.4492159945 -0.5291567142
7.7204089661 -2.7567070001 1.2984061215
4.1036025565 -1.4652630376 -0.3812192369
6.6376340920 -2.3700833007 1.3700086519
4.1757035944 -1.4910079737 -0.2323716568
5.5589848289 -1.9849327229 1.3627535519
7.7514240939 -2.7677814937 -0.1436682166
4.8176366440 -1.7202213922 1.3707057280
3.7831406059 -1.3657448143 -1.0777225550
7.7097402714 -2.7832795267 0.1430748348
3.8620371577 -1.3942271171 -0.9479437880
7.7059829154 -2.7819230903 0.4293642054
3.9351202278 -1.4206107054 -0.8132279769
7.6834463340 -2.7737871995 0.7146771245
3.9835721511 -1.4381022474 -0.6707910180
7.6590401356 -2.7649763615 0.9998161408
4.0535777997 -1.4633748612 -0.5291567142
7.6419926574 -2.7588220819 1.2868299705
4.1022107378 -1.4809317511 -0.3815678599
6.6274737201 -2.3925724174 1.3696270339
4.1573233037 -1.5008278398 -0.2316389533
5.5520220933 -2.0043255519 1.3627535519
7.6645990744 -2.7669831840 -0.1422371192
4.8206878134 -1.7403078733 1.3732939185
3.7785907731 -1.3782828123 -1.0777225550
7.6215659853 -2.7800505614 0.1416088326
3.8537309371 -1.4056910189 -0.9470439838
7.5935169578 -2.7698193682 0.4236072500
3.9266988422 -1.4323068700 -0.8124647409
7.5955919436 -2.7705762422 0.7073560417
3.9880601415 -1.4546890832 -0.6723553627
7.5659083127 -2.7597488092 0.9888478994
4.0375133096 -1.4727276736 -0.5276942820
7.5530036184 -2.7550416791 1.2733766059
4.0972771721 -1.4945272041 -0.3815678599
6.6158143480 -2.4131915184 1.3688637978
4.1466944593 -1.5125527066 -0.2313249376
5.5178836316 -2.0127091358 1.3560050200
7.5839935624 -2.7663456043 -0.1409107363
4.8148901639 -1.7562844865 1.3732939185
3.7732708611 -1.3927809413 -1.0777225550
7.5301685364 -2.7795182504 0.1401079255
3.8483052346 -1.4204774542 -0.9470439838
7.5116257329 -2.7726737740 0.4196297171
3.9174868279 -1.4460136026 -0.8117015049
7.5045257849 -2.7700530577 0.6998606475
3.9824453157 -1.4699909282 -0.6723553627
7.4751783079 -2.7592203855 0.9783671353
4.0299665816 -1.4875318670 -0.5274505433
7.4608305448 -2.7539243726 1.2596103723
4.0952468231 -1.5116279575 -0.3819164829
6.6175506219 -2.4426548539 1.3711535059
4.1446036720 -1.5298464425 -0.2315342814
5.5155994740 -2.0359052159 1.3573547264
7.4757652261 -2.7594370274 -0.1390956859
4.8171728861 -1.7781036224 1.3758821091
3.7595809187 -1.4019112145 -1.0751343644
7.4515840234 -2.7786233184 0.1388164474
3.8563550209 -1.4379973374 -0.9501932987
7.4125632269 -2.7640728423 0.4146054650
3.9053119714 -1.4562529088 -0.8101750329
7.4131583181 -2.7642947461 0.6921909418
3.9849522241 -1.4859499857 -0.6736068385
7.4027476311 -2.7604127020 0.9700800196
4.0305914866 -1.5029684234 -0.5281817594
7.3683673034 -2.7475926117 1.2455312698
4.0827442059 -1.5224156660 -0.3812192369
6.6167720967 -2.4673300580 1.3726799779
4.1469932115 -1.5463734962 -0.2319529691
5.5161214575 -2.0569081233 1.3591543349
7.3897529264 -2.7555671028 -0.1376645885
4.8058196144 -1.7920434639 1.3743291948
3.7474335682 -1.4123007260 -1.0730638120
7.3557634772 -2.7721772542 0.1372108259
3.8494885187 -1.4507623233 -0.9497433966
7.3318500956 -2.7631649833 0.4106279322
3.9075534645 -1.4726453436 -0.8117015049
7.3251600361 -2.7606436909 0.6848698590
3.9686503142 -1.4956710020 -0.6717296248
7.3131921960 -2.7561333536 0.9595992556
4.0290357818 -1.5184285608 -0.5286692368
7.2829446847 -2.7447339302 1.2327036431
4.0774051919 -1.5366576106 -0.3812192369
6.5970966107 -2.4862573714 1.3703902699
4.1453080581 -1.5622482623 -0.2321623129
5.5198492402 -2.0802735919 1.3618537477
7.2958844563 -2.7496105607 -0.1360938719
4.7941118296 -1.8067638810 1.3727762804
3.7497021552 -1.4281237638 -1.0751343644
7.2582106589 -2.7643857286 0.1355702996
3.8352952046 -1.4607230111 -0.9474938859
7.2512341168 -2.7617286201 0.4066503993
3.8987196648 -1.4848790574 -0.8109382689
7.2465877478 -2.7599589889 0.6784203338
3.9560210687 -1.5067030565 -0.6704781490
7.2311778381 -2.7540899205 0.9500934463
4.0218557088 -1.5317770518 -0.5284254981
7.2050164402 -2.7441260054 1.2211274921
4.0682924535 -1.5494631014 -0.3808706139
6.5902122523 -2.5099696819 1.3707718879
4.1248976572 -1.5710219435 -0.2313249376
5.5198384450 -2.1023036308 1.3636533562
7.2283107180 -2.7529979398 -0.1350118226
4.7949970748 -1.8262381881 1.3748468329
3.7462454700 -1.4425516589 -1.0756520025
3.8317342232 -1.4754704689 -0.9479437880
7.1888753718 -2.7681912935 0.4037195856
3.9005796208 -1.5019804889 -0.8124647409
7.1639103848 -2.7585781264 0.6716221855
3.9652196247 -1.5268711550 -0.6729811006
7.1358201852 -2.7477615464 0.9388814662
4.0088044862 -1.5436542021 -0.5274505433
7.1396074415 -2.7492198899 1.2117414238
4.0737419292 -1.5686594018 -0.3819164829
6.5846327652 -2.5355180259 1.3715351239
4.1172480416 -1.5854121253 -0.2312202657
5.5084589283 -2.1211200998 1.3627535519
7.2349670955 -2.7859396479 -0.1353259659
4.7900742126 -1.8444945898 1.3753644710
3.7432416372 -1.4556670609 -1.0761696407
7.2014601716 -2.8004946990 0.1348722034
3.8231877728 -1.4867564127 -0.9470439838
7.1964092242 -2.7985304930 0.4046616329
3.8882582883 -1.5120609523 -0.8109382689
7.1677215607 -2.7873744708 0.6728423660
3.9564523364 -1.5385801672 -0.6723553627
7.1451701436 -2.7786047043 0.9413188532
4.0018133145 -1.5562200869 -0.5272068046
7.1230870589 -2.7700170623 1.2104899480
4.0685176009 -1.5821599652 -0.3819164829
6.5816776767 -2.5594744684 1.3726799779
4.1194137644 -1.6019524007 -0.2316389533
5.4777835262 -2.1301935110 1.3569048243
7.2629633252 -2.8244119674 -0.1360240622
4.7875322335 -1.8617694637 1.3763997472
3.7291474539 -1.4651920595 -1.0735814501
7.2158363767 -2.8351215104 0.1353259659
3.8197885769 -1.5008052004 -0.9474938859
7.1903146834 -2.8250939684 0.4048709767
3.8793020559 -1.5241882063 -0.8101750329
7.1783465879 -2.8203916715 0.6747597924
3.9510576680 -1.5523811792 -0.6723553627
7.1742272022 -2.8187731538 0.9464373658
4.0055947912 -1.5738089615 -0.5284254981
7.1354373241 -2.8035325064 1.2142443753
4.0518437857 -1.5919803158 -0.3808706139
6.5781853043 -2.5845866898 1.3738248320
4.1212325887 -1.6192433630 -0.2320576410
5.4811970937 -2.1535770729 1.3596042370
6.9776039661 -2.7415193558 -0.1308581497
4.7702161019 -1.8742307299 1.3732939185
3.7240103387 -1.4782000885 -1.0735814501
6.9456883933 -2.7570055570 0.1304392919
3.8217716630 -1.5170052435 -0.9492934944
6.9242316053 -2.7484885490 0.3904262521
3.8776076071 -1.5391686346 -0.8109382689
6.9092009317 -2.7425223080 0.6503561833
3.9382707640 -1.5632481284 -0.6711038869
6.9023466376 -2.7398015803 0.9118264707
3.9926966383 -1.5848518096 -0.5274505433
6.8850887482 -2.7329512734 1.1732585435
4.0499658101 -1.6075841028 -0.3812192369
6.5654739624 -2.6060841163 1.3730615959
4.1155553536 -1.6336190652 -0.2320576410
5.4863252926 -2.1777293282 1.3627535519
6.9178089911 -2.7459391713 -0.1299157197
4.7654404238 -1.8915829484 1.3738115567
3.7259999313 -1.4940665722 -1.0756520025
6.8636365436 -2.7522088333 0.1290780041
3.8074091934 -1.5267103885 -0.9470439838
6.8738120485 -2.7562890485 0.3881234699
3.8795000262 -1.5556176632 -0.8124647409
6.8496554343 -2.7466026314 0.6456497729
3.9254560165 -1.5740452826 -0.6698524111
6.8300961441 -2.7387596678 0.9035393549
3.9981949373 -1.6032124303 -0.5289129755
6.8205027470 -2.7349128685 1.1638724752
4.0443294911 -1.6217116509 -0.3812192369
6.5417590860 -2.6231411042 1.3700086519
4.0949975229 -1.6420287239 -0.2312202657
5.4624112894 -2.1903398448 1.3587044328
6.8320838608 -2.7395567105 -0.1284846223
4.7677737331 -1.9118012587 1.3763997472
3.7279242443 -1.5099644269 -1.0777225550
6.8020918059 -2.7551301965 0.1281006693
3.7966382573 -1.5377964612 -0.9456942774
6.7845486404 -2.7480244846 0.3836225775
3.8740463555 -1.5691499617 -0.8124647409
6.7920132747 -2.7510479721 0.6411176741
3.9290921977 -1.5914458181 -0.6714167558
6.7579381593 -2.7372461325 0.8952522392
3.9815350331 -1.6126873484 -0.5274505433
6.7431717447 -2.7312651202 1.1522963242
4.0441840869 -1.6380628219 -0.3817421714
6.5562184213 -2.6555412457 1.3749696860
4.0910920860 -1.6570625132 -0.2313249376
5.4655696320 -2.2137831073 1.3614038456
6.7705834788 -2.7423680131 -0.1275072875
4.7610713571 -1.9284319939 1.3763997472
3.7190546373 -1.5215054232 -1.0766872788
6.7332073708 -2.7546278636 0.1269837153
3.7930507295 -1.5517780238 -0.9461441795
6.7176098178 -2.7482467362 0.3803777480
3.8576428424 -1.5782033549 -0.8101750329
6.7049191630 -2.7430548523 0.6337965914
3.9326544056 -1.6088913956 -0.6729811006
6.6840370753 -2.7345117646 0.8867213847
3.9722067501 -1.6250726870 -0.5269630659
6.6586366086 -2.7241201593 1.1394686975
4.0439735216 -1.6544332484 -0.3822651058
6.5650794110 -2.6858448993 1.3787858661
4.0963740661 -1.6758708771 -0.2319529691
5.4542013343 -2.2313726790 1.3605040413
6.6906389899 -2.7372126792 -0.1261809045
4.7578867258 -1.9465028515 1.3774350235
3.6976520310 -1.5278383114 -1.0720285357
6.6533215469 -2.7490957701 0.1256573323
3.7966162449 -1.5687294814 -0.9483936902
6.6452154994 -2.7457464204 0.3768189028
3.8448526049 -1.5886603343 -0.8086485608
6.6216477102 -2.7360084107 0.6268241316
3.9306657923 -1.6241176121 -0.6736068385
6.6212464666 -2.7358426203 0.8796529625
3.9683447236 -1.6396862254 -0.5272068046
6.5833631430 -2.7201895537 1.1282054155
4.0216013902 -1.6616914263 -0.3806963024
6.5647365383 -2.7124931994 1.3806939561
4.0904993185 -1.6901594632 -0.2319529691
5.5004108216 -2.2727228824 1.3740011052
6.6071179250 -2.7300048272 -0.1247847120
4.7457069524 -1.9608856745 1.3758821091
3.6994278619 -1.5437118510 -1.0740990882
6.5901664514 -2.7499706525 0.1246450927
3.7911173111 -1.5819723861 -0.9483936902
6.5673915915 -2.7404670691 0.3729460419
3.8501548321 -1.6066077957 -0.8109382689
6.5605727489 -2.7376216756 0.6219434098
3.9103885046 -1.6317423402 -0.6711038869
6.5438727257 -2.7306530240 0.8706346306
3.9699250271 -1.6565859751 -0.5281817594
6.5081990496 -2.7157669717 1.1169421334
4.0176153185 -1.6764863680 -0.3808706139
6.5026850316 -2.7134660606 1.3696270339
4.0956340489 -1.7090423316 -0.2325810006
5.5086301347 -2.2986629120 1.3780502244
6.5458752179 -2.7314886319 -0.1238073771
4.7406162337 -1.9781830419 1.3763997472
3.6940166394 -1.5566161545 -1.0740990882
6.5068161449 -2.7418975370 0.1232489001
3.7783887242 -1.5921695812 -0.9465940816
6.4933670211 -2.7362302308 0.3692825248
3.8499507005 -1.6223249755 -0.8120831229
6.5014035039 -2.7396167123 0.6172369995
3.9028483476 -1.6446154361 -0.6707910180
6.4849094684 -2.7326663153 0.8640536858
3.9641181433 -1.6704338237 -0.5281817594
6.4950386680 -2.7369346436 1.1163163955
4.0172467853 -1.6928216228 -0.3813935484
6.4986009944 -2.7384357670 1.3707718879
4.0749191000 -1.7171240734 -0.2317436253
5.5131432430 -2.3231751970 1.3811995393
6.4828601523 -2.7318027570 -0.1227951375
4.7390227924 -1.9969697365 1.3779526616
3.6885606134 -1.5695009990 -1.0740990882
6.4420042345 -2.7411050383 0.1222017557
3.7674286023 -1.6030597229 -0.9452443752
6.4580471109 -2.7479313624 0.3678171179
3.8406513310 -1.6342163604 -0.8113198869
6.4918009953 -2.7622938092 0.6172369995
3.8934485398 -1.6566818369 -0.6701652801
6.4935974181 -2.7630581960 0.8664910728
6.4387991276 -2.7397412492 -0.8591789118
6.5036222574 -2.7673238153 1.1194450850
6.4551345113 -2.7466920367 -0.6137507696
6.4926156555 -2.7626404511 1.3715351239
6.4506958906 -2.7448033814 -0.3673984303
5.4978277461 -2.3393532177 1.3793999308
6.4751250789 -2.7551981233 -0.1228300423
4.7266904439 -2.0112304367 1.3763997472
3.6883843394 -1.5846549704 -1.0756520025
6.4783290905 -2.7833098313 0.1230743760
6.4649310519 -2.7775535797 0.3687591652
6.5187308168 -2.8006677828 0.6207232293
6.5568681792 -2.8170528867 0.8762406207
6.4437872815 -2.7684694990 -0.8611288214
6.5556312492 -2.8165214597 1.1300826291
6.4564907584 -2.7739273434 -0.6147966385
6.2754930547 -2.6961645929 1.3276490529
6.4502505386 -2.7712463334 -0.3679217899
5.4878377110 -2.3577611511 1.3789500286
6.4709798800 -2.7801523613 -0.1229347568
4.7338407282 -2.0338184823 1.3805408521
3.6668798141 -1.5906009851 -1.0709932595
6.5254448258 -2.8305751740 0.1241564253
4.2173950180 -1.8294007467 -1.0613191248
6.5101653725 -2.8239473283 0.3718993227
4.9764525600 -2.1586609721 -1.0544105585
6.3846224198 -2.7694899274 0.6088700478
6.1235113310 -2.6562264511 -1.0571841650
6.2920355613 -2.7293280580 0.8421172029
6.4705071922 -2.8067445991 -0.8660035954
6.2485549184 -2.7104672398 1.0787721222
6.4979480969 -2.8186477790 -0.6196773604
6.2264192907 -2.7008653567 1.3192534567
6.4863454598 -2.8136148445 -0.3705385878
5.4777864922 -2.3761271250 1.3785001265
6.4465597745 -2.7963568067 -0.1226555183
4.7125342802 -2.0441798063 1.3763997472
3.6559965218 -1.6010660207 -1.0694403452
6.2554165736 -2.7394268189 0.1191999416
4.2270492654 -1.8511464402 -1.0653682440
6.2386477348 -2.7320832621 0.3569312385
4.9688872247 -2.1760186173 -1.0544105585
6.2234368005 -2.7254219565 0.5944021938
6.0780127882 -2.6617365992 -1.0509267861
6.2261007548 -2.7265885787 0.8345613033
6.2479212013 -2.7361443798 -0.8374861677
6.1938189265 -2.7124514377 1.0709503985
6.2161365814 -2.7222249806 -0.5937049478
6.1558092545 -2.6958059092 1.3062784444
6.2185230647 -2.7232700903 -0.3557798474
5.4837395876 -2.4014872738 1.3820993435
6.2022959058 -2.7161637507 -0.1181877020
4.7106789647 -2.0629417944 1.3779526616
3.6503853559 -1.6138183676 -1.0694403452
6.1836320406 -2.7337549306 0.1180131779
4.2009560072 -1.8572230887 -1.0604193205
6.1760982374 -2.7304242713 0.3538957529
4.9738303011 -2.1989072151 -1.0570818846
6.1774400934 -2.7310174996 0.5909159639
6.0704910437 -2.6837358227 -1.0512396550
6.1493685830 -2.7186072155 0.8255429714
6.1820490183 -2.7330550838 -0.8299302680
6.1319186316 -2.7108926733 1.0618771991
6.1519285414 -2.7197389612 -0.5884756030
6.1176317097 -2.7045764916 1.3001725563
6.1523510392 -2.7199257456 -0.3525350180
5.4735408986 -2.4198269433 1.3816494414
6.1488822598 -2.7183922143 -0.1173499865
4.7122835161 -2.0832785994 1.3805408521
3.6570789623 -1.6320616262 -1.0730638120
4.2051250176 -1.8766406866 -1.0631187333
6.1045179631 -2.7242916045 0.3503369077
4.9643316736 -2.2154553697 -1.0567002666
6.1060089360 -2.7249569880 0.5849893731
5.0274545505 -2.2436255093 -0.8719657496
6.0890840810 -2.7174038542 0.8187182879
6.0773212704 -2.7121544101 1.0540554755
6.0722973558 -2.7099123644 1.2925401961
5.4561630572 -2.4349472472 1.3793999308
5.0327379817 -2.2459833708 -0.0961976689
4.7190961043 -2.1060129523 1.3846819571
3.6513595925 -1.6448175627 -1.0730638120
4.1949949743 -1.8897074458 -1.0622189291
6.0494453731 -2.7250764386 0.3477201098
4.9619379310 -2.2351900566 -1.0578451206
6.0564947692 -2.7282519600 0.5811545202
6.0325030264 -2.7174444679 0.8123810817
6.0155857078 -2.7098237716 1.0449822761
6.0126801985 -2.7085149351 1.2818548918
5.4405229188 -2.4507768738 1.3776003222
4.7029088818 -2.1185059780 1.3820937665
3.6403201244 -1.6551541971 -1.0715108976
4.1901471911 -1.9051455566 -1.0626688312
5.9926244559 -2.7246827699 0.3449986399
4.9487439658 -2.2500588040 -1.0567002666
5.9961505467 -2.7262859871 0.5762737984
5.9814180452 -2.7195875208 0.8067750917
4.9839126793 -2.2660490581 -0.6722313302
5.9557396977 -2.7079122771 1.0362219456
5.9459989794 -2.7034834384 1.2696431155
5.4443529761 -2.4753986932 1.3807496371
4.6972439866 -2.1357086282 1.3826114046
3.6310088549 -1.6662395581 -1.0704756214
4.1887850359 -1.9221983768 -1.0640185376
5.9340653174 -2.7230928833 0.3421724982
4.9372910700 -2.2656815281 -1.0559370306
5.9286511497 -2.7206083671 0.5706958306
4.9677768772 -2.2796712097 -0.8657083707
5.9267837194 -2.7197514190 0.8006816242
4.9813850378 -2.2859158806 -0.6729625462
5.8941855757 -2.7047924038 1.0271487462
4.9815880613 -2.2860090464 -0.4795309194
5.8794268434 -2.6980197452 1.2574313393
5.0046552707 -2.2965943957 -0.2885804764
5.4374503426 -2.4952004300 1.3811995393
4.9962203636 -2.2927236874 -0.0959533351
4.6897604697 -2.1520918083 1.3826114046
3.6286763054 -1.6805279811 -1.0715108976
5.0008884624 -2.3160327030 0.0961976689
4.1679031691 -1.9302570163 -1.0604193205
5.8846522047 -2.7253251205 0.3398697160
4.9364780191 -2.2862026649 -1.0574635026
5.8757281236 -2.7211921622 0.5665123548
4.9562039331 -2.2953382140 -0.8650826328
5.8560096623 -2.7120600647 0.7923945085
4.9859842341 -2.3091301935 -0.6746687171
5.8434809483 -2.7062577134 1.0199527605
4.9735778670 -2.3033845041 -0.4795309194
5.8254359879 -2.6979006547 1.2478908890
4.9875463096 -2.3098536285 -0.2880571168
5.4357803741 -2.5174416920 1.3829991478
5.0081466460 -2.3193941438 -0.0963372881
4.6979963760 -2.1757560336 1.3872701476
3.6280385686 -1.6956378838 -1.0730638120
4.9982084612 -2.3360147521 0.0963023833
4.1646709042 -1.9464439600 -1.0613191248
5.8172027215 -2.7187884378 0.3365202146
4.9373606712 -2.3075762954 -1.0593715926
5.8192641894 -2.7197519069 0.5619802559
4.9571094869 -2.3168063076 -0.8666469775
5.7943544876 -2.7081098492 0.7853260862
4.9599098935 -2.3181151347 -0.6722313302
5.7892596354 -2.7057286661 1.0121310369
4.9907771352 -2.3325415703 -0.4819712803
5.7750756842 -2.6990995069 1.2391136748
4.9667873937 -2.3213294749 -0.2873244134
5.4198981246 -2.5331000243 1.3811995393
4.9909620553 -2.3326279964 -0.0961627640
4.6973736219 -2.1954134491 1.3893407001
3.6276378611 -1.7101310120 -1.0746167263
4.9868168075 -2.3508713935 0.0962325737
4.1529052015 -1.9577510895 -1.0599694184
5.7557639717 -2.7133663399 0.3334847290
4.9101471867 -2.3147280128 -1.0551737946
5.7669608478 -2.7186447402 0.5577967801
4.9529728986 -2.3349167915 -0.8672727154
5.7458394499 -2.7086877493 0.7799638348
4.9503998011 -2.3337037890 -0.6719875915
5.7302251391 -2.7013268940 1.0033707064
4.9703993807 -2.3431319355 -0.4807510998
5.7163702691 -2.6947954695 1.2284283706
4.9572555990 -2.3369357303 -0.2872197415
5.4114681531 -2.5510593569 1.3811995393
4.9669201862 -2.3414917833 -0.0958486207
4.7005519491 -2.2159212053 1.3924465288
3.5957767068 -1.7097081533 -1.0668521546
4.9844113554 -2.3699716163 0.0963372881
4.1499100027 -1.9731856413 -1.0608692227
5.7052482060 -2.7127127655 0.3310772749
4.9024441750 -2.3309981294 -1.0551737946
5.6949364908 -2.7078097848 0.5516958778
4.9452027021 -2.3513288140 -0.8672727154
5.6973847342 -2.7089738676 0.7746015835
4.9426336413 -2.3501072854 -0.6719875915
5.6748520186 -2.6982600857 0.9952361139
4.9410096694 -2.3493351245 -0.4786593619
5.6666226341 -2.6943472049 1.2196511564
4.9530861756 -2.3550772223 -0.2874290853
5.4012187439 -2.5681538308 1.3807496371
4.9573221632 -2.3570913358 -0.0958137159
4.6949224250 -2.2323263661 1.3929641669
3.5842613178 -1.7203679676 -1.0652992402
4.9576636661 -2.3795714121 0.0959882400
4.1426500734 -1.9883825021 -1.0608692227
5.6556543511 -2.7145918555 0.3287744927
4.9027174190 -2.3531984010 -1.0570818846
5.6364762579 -2.7053867853 0.5469894675
4.9258662968 -2.3643093620 -0.8653955017
5.6444667042 -2.7092220268 0.7687518547
4.9339869066 -2.3682070792 -0.6719875915
5.6186218967 -2.6968170778 0.9871015213
4.9323657757 -2.3674289714 -0.4786593619
5.6106910535 -2.6930104444 1.2097290881
4.9480223359 -2.3749437819 -0.2876384292
5.4005539973 -2.5921491991 1.3829991478
4.9540580925 -2.3778408147 -0.0959184303
4.6901922881 -2.2511909313 1.3939994431
3.5901016430 -1.7393895653 -1.0689227070
4.9489088395 -2.3977260956 0.0959882400
4.1265657608 -1.9993042367 -1.0586197120
5.6079213062 -2.7170149408 0.3265763825
4.8940596230 -2.3711518744 -1.0570818846
5.5942481953 -2.7103903745 0.5438518606
4.9153899039 -2.3814863083 -0.8650826328
5.5791187387 -2.7030602146 0.7611959551
4.9234874300 -2.3854095266 -0.6717438528
5.5749232327 -2.7010275092 0.9811570113
4.9236556232 -2.3854910155 -0.4786593619
5.5495455869 -2.6887321435 1.1986621659
4.9285000710 -2.3878381307 -0.2870103977
5.4032932890 -2.6178735033 1.3861484627
4.9453096331 -2.3959822948 -0.0959184303
4.6923410820 -2.2734200662 1.3971052718
3.5840082615 -1.7519105708 -1.0689227070
4.9458988381 -2.4176206706 0.0960929544
4.1125587734 -2.0102730414 -1.0568201035
5.5338061753 -2.7049975413 0.3228081934
4.8875168790 -2.3890827980 -1.0574635026
5.5561134705 -2.7159016418 0.5410628767
4.9105965480 -2.4003644450 -0.8657083707
5.5197134347 -2.6981088236 0.7543712715
4.9062137831 -2.3982220916 -0.6705251593
5.5210935529 -2.6987834436 0.9733352877
4.9188788070 -2.4044129226 -0.4790079849
5.4977950602 -2.6873948327 1.1895033337
4.9201350625 -2.4050269968 -0.2870103977
5.3748639567 -2.6273044858 1.3811995393
4.9351195453 -2.4123516100 -0.0958835255
4.6982616774 -2.2965723560 1.4012463767
3.5848014771 -1.7678284517 -1.0709932595
4.9338424957 -2.4331018595 0.0960231448
4.1090119380 -2.0263404428 -1.0577199078
5.4795478577 -2.7022139628 0.3201913955
4.8685827186 -2.4009192990 -1.0551737946
5.4947784614 -2.7097248653 0.5360078434
4.9004159407 -2.4166177068 -0.8653955017
5.4710931765 -2.6980445754 0.7490090201
4.8942515919 -2.4135777864 -0.6700376819
5.4549460164 -2.6900816772 0.9633234815
4.9140295183 -2.4233311803 -0.4793566079
5.4566863816 -2.6909399304 1.1826342095
4.9117097829 -2.4221872134 -0.2870103977
5.3674077676 -2.6469125903 1.3816494414
4.9212881891 -2.4269107606 -0.0957788111
4.7023447119 -2.3189397863 1.4048698435
3.5668111212 -1.7736847992 -1.0673697927
4.9311187221 -2.4521204019 0.0961278592
4.1144842729 -2.0460287812 -1.0608692227
5.4383668438 -2.7043620409 0.3183073010
4.8658681341 -2.4196729378 -1.0563186486
5.4268911248 -2.6986554565 0.5302555641
4.8959129331 -2.4346134551 -0.8660212396
5.4283446752 -2.6993782703 0.7443779849
4.8933310055 -2.4333295279 -0.6710126367
5.4053142787 -2.6879258377 0.9561274957
4.8916947614 -2.4325158651 -0.4779621159
5.4143330394 -2.6924106388 1.1753834673
4.9036507352 -2.4384612680 -0.2870103977
5.3760500614 -2.6733734838 1.3861484627
4.9096323660 -2.4414357814 -0.0957090014
4.6877100575 -2.3310794402 1.4027992911
3.5574558422 -1.7837713536 -1.0663345165
4.9086594423 -2.4612887654 0.0958486207
4.1129027381 -2.0622822629 -1.0622189291
5.3972318309 -2.7062676125 0.3164232065
4.8578173515 -2.4357956408 -1.0563186486
5.3840724184 -2.6996692501 0.5269436457
4.8719199864 -2.4428669516 -0.8632054191
5.3856475012 -2.7004590245 0.7397469496
4.8816857581 -2.4477636825 -0.6705251593
5.3557569114 -2.6854713535 0.9489315100
4.8836012475 -2.4487241428 -0.4779621159
5.3544800359 -2.6848311055 1.1643165451
4.8991082183 -2.4564996126 -0.2872197415
5.3514770061 -2.6833253332 1.3820993435
4.9050843080 -2.4594961297 -0.0957788111
4.6920424871 -2.3526731883 1.4064227579
3.5598271769 -1.8005377911 -1.0689227070
4.9000381680 -2.4784079284 0.0958486207
4.0882895062 -2.0678306533 -1.0577199078
5.3521073865 -2.7070616444 0.3143297681
4.8440296448 -2.4500791761 -1.0551737946
5.3426138117 -2.7022598550 0.5238060388
4.8633632390 -2.4598579842 -0.8632054191
5.3265893709 -2.6941547955 0.7329222661
4.8766546518 -2.4665806957 -0.6710126367
5.3163840264 -2.6889929976 0.9436127379
4.8785798001 -2.4675544234 -0.4783107389
5.2995261032 -2.6804663680 1.1543944769
4.8798101979 -2.4681767507 -0.2865917100
5.2794755171 -2.6703249100 1.3659028669
4.9018225955 -2.4793104805 -0.0958835255
4.7010405382 -2.3777562016 1.4115991390
3.5517994615 -1.8120752778 -1.0684050689
4.8984819223 -2.4991326471 0.0959882400
4.0793104798 -2.0812035564 -1.0572700056
5.2839149868 -2.6957748661 0.3108755948
4.8441915920 -2.4714345277 -1.0570818846
5.2923289594 -2.7000675498 0.5197968744
4.8653045279 -2.4822060338 -0.8650826328
5.2747141511 -2.6910807365 0.7270725373
4.8627099952 -2.4808823417 -0.6702814206
5.2682537999 -2.6877847613 0.9367296212
4.8734860237 -2.4863801112 -0.4786593619
5.2586585260 -2.6828893953 1.1475253527
4.8711647252 -2.4851958193 -0.2865917100
5.2076303997 -2.6568556039 1.3497063902
4.8895755916 -2.4945887696 -0.0958137159
4.7047576201 -2.4002973884 1.4152226058
3.5557591450 -1.8297658120 -1.0715108976
4.8897286122 -2.5162160540 0.0959882400
4.0754865325 -2.0972134558 -1.0581698099
5.2425064270 -2.6977527550 0.3089915003
4.8215698507 -2.4811420890 -1.0540289405
5.2545264780 -2.7039381791 0.5170078905
4.8530975849 -2.4973660142 -0.8644568949
5.2317516657 -2.6922184390 0.7224415020
4.8504904107 -2.4960243827 -0.6697939432
5.2114153219 -2.6817535158 0.9282821596
4.8683205534 -2.5051996345 -0.4790079849
5.2178393497 -2.6850592701 1.1406562285
4.8695638966 -2.5058394492 -0.2870103977
5.1671347108 -2.6589670600 1.3416081518
4.8719477809 -2.5070661774 -0.0956391918
4.7083747906 -2.4228927975 1.4188460726
3.5301692905 -1.8329933914 -1.0658168784
4.8857975693 -2.5368853218 0.0960929544
4.0695020155 -2.1130347264 -1.0586197120
5.2024500578 -2.7013029094 0.3072120777
4.8072165355 -2.4960831664 -1.0528840865
5.1950702588 -2.6974710470 0.5121271687
4.8474179936 -2.5169572382 -0.8650826328
5.1848521879 -2.6921654498 0.7173229894
4.8448329993 -2.5156150143 -0.6702814206
5.1699948149 -2.6844509567 0.9226505186
4.8449600099 -2.5156809629 -0.4776134929
5.1800850888 -2.6896901971 1.1345503404
4.8656645345 -2.5264315115 -0.2873244134
5.1314120187 -2.6644173537 1.3348596199
4.8645009580 -2.5258273400 -0.0956740966
4.6926048315 -2.4365725655 1.4167755202
3.5203265177 -1.8435126677 -1.0647816021
4.8680547665 -2.5492864324 0.0959184303
4.0690065845 -2.1308435867 -1.0604193205
5.1576022026 -2.7009156530 0.3051186394
4.8123877530 -2.5201349193 -1.0559370306
5.1467920677 -2.6952546382 0.5082923158
4.8281027589 -2.5283645003 -0.8632054191
5.1437690092 -2.6936715332 0.7129356928
4.8412978060 -2.5352744379 -0.6710126367
5.1220937931 -2.6823207294 0.9157674018
4.8396789608 -2.5344266865 -0.4779621159
5.1184883112 -2.6804326229 1.1231018001
4.8603544599 -2.5452539619 -0.2875337573
5.0771948939 -2.6588082259 1.3231621645
4.8556543359 -2.5427926169 -0.0956740966
4.6977619306 -2.4601080568 1.4209166251
3.5207031092 -1.8593982121 -1.0668521546
4.8555900928 -2.5643955930 0.0958486207
4.0460352239 -2.1368432464 -1.0563702014
5.1163534084 -2.7021132101 0.3032345449
4.8000896210 -2.5350839826 -1.0551737946
5.1074023890 -2.6973858847 0.5053290205
4.8192478409 -2.5452020637 -0.8632054191
5.0904519413 -2.6884338001 0.7068422253
4.8271527030 -2.5493768794 -0.6702814206
5.0830051529 -2.6845009081 0.9104486298
4.8308028116 -2.5513046208 -0.4779621159
5.0691724027 -2.6771953812 1.1143245859
4.8373116968 -2.5547421755 -0.2866963819
5.0472049279 -2.6655936409 1.3177633389
4.8502853695 -2.5615939955 -0.0957439063
4.6976873121 -2.4810019813 1.4235048157
3.5264544260 -1.8774181074 -1.0704756214
4.8541199811 -2.5842423145 0.0959882400
4.0440873269 -2.1529961424 -1.0577199078
5.0615270469 -2.6946619411 0.3005130750
4.8003213183 -2.5556009168 -1.0570818846
5.0614969412 -2.6946459134 0.5016684791
4.8107810397 -2.5611694761 -0.8632054191
5.0499682706 -2.6885082657 0.7024549288
4.8116630365 -2.5616390346 -0.6693064658
5.0374579281 -2.6818479943 0.9038783819
4.8293504519 -2.5710554824 -0.4786593619
5.0290730923 -2.6773840652 1.1074554618
4.8217612237 -2.5670151198 -0.2862776942
5.0056546667 -2.6649165352 1.3092151985
4.8470594430 -2.5804834166 -0.0958486207
4.6996655697 -2.5020136867 1.4266106444
3.5249858385 -1.8924574728 -1.0720285357
4.8415461704 -2.5992785929 0.0959184303
4.0416982928 -2.1698646428 -1.0590696142
5.0080978031 -2.6886950888 0.2978962771
4.7740741281 -2.5630549096 -1.0532657045
5.0222182676 -2.6962759359 0.4987051837
4.8018117182 -2.5779463764 -0.8632054191
5.0055734545 -2.6873398430 0.6975801548
4.8026920706 -2.5784190108 -0.6693064658
4.9880363843 -2.6779247245 0.8966823962
4.8168356960 -2.5860122922 -0.4783107389
4.9833723055 -2.6754207227 1.0994414836
4.8162908247 -2.5857197674 -0.2864870381
4.9671338832 -2.6667028086 1.3015668623
4.8256895782 -2.5907656718 -0.0956042870
4.6977116921 -2.5220582448 1.4286811968
3.4928752622 -1.8909548445 -1.0642639640
4.8359603516 -2.6180673423 0.0959882400
4.0375266958 -2.1858154363 -1.0599694184
4.9740923390 -2.6928485271 0.2964308702
4.7616451358 -2.5778349530 -1.0525024685
4.9724772529 -2.6919741601 0.4946960193
4.7962578348 -2.5965733979 -0.8638311570
4.9577570161 -2.6840049940 0.6922179034
4.7971536198 -2.5970583534 -0.6697939432
4.9352294490 -2.6718091356 0.8888606726
4.8007708502 -2.5990166310 -0.4776134929
4.9532849509 -2.6815839304 1.0948620675
4.8125045935 -2.6053689846 -0.2868010538
4.9338027832 -2.6710367747 1.2952682324
4.8130994482 -2.6056910239 -0.0955344774
4.6922769816 -2.5402807784 1.4297164731
3.4876166226 -1.9046700610 -1.0647816021
4.8193120955 -2.6319405072 0.0958486207
4.0380397431 -2.2052691669 -1.0622189291
4.9361429224 -2.6957445896 0.2947561196
4.7607801942 -2.5999748493 -1.0544105585
4.9188618735 -2.6863069994 0.4903382320
4.7797739973 -2.6103478152 -0.8625796812
4.9165265456 -2.6850316215 0.6878306068
4.7910871724 -2.6165262081 -0.6702814206
4.9011320604 -2.6766243284 0.8844805073
4.7842183028 -2.6127749557 -0.4769162470
4.8986239928 -2.6752546133 1.0849399992
4.8064289394 -2.6249047105 -0.2870103977
4.8931942842 -2.6722893208 1.2871699941
4.8122919759 -2.6281066536 -0.0957090014
4.6829349109 -2.5574616959 1.4297164731
3.4948207637 -1.9236771289 -1.0689227070
4.8105580078 -2.6479070152 0.0958486207
4.0204615911 -2.2130090593 -1.0595195163
4.8904327565 -2.6918729973 0.2925580093
4.7521324274 -2.6157474395 -1.0544105585
4.8837453350 -2.6881919960 0.4877235596
4.7693611916 -2.6252307813 -0.8622668123
4.8693367969 -2.6802610098 0.6824683555
4.7858624518 -2.6343136782 -0.6707688980
4.8645407509 -2.6776210908 0.8794746042
4.7825097276 -2.6324682162 -0.4776134929
4.8501677326 -2.6697096560 1.0761627850
4.7872000078 -2.6350499180 -0.2863823662
4.8467475402 -2.6678270570 1.2772721472
4.8035506400 -2.6440499037 -0.0957090014
4.6845829898 -2.5785657593 1.4328223017
3.4813278511 -1.9321150296 -1.0668521546
4.8047824974 -2.6666240223 0.0959184303
3.9973768706 -2.2185189850 -1.0554703971
4.8408406503 -2.6866360701 0.2901505552
4.7498390128 -2.6361307344 -1.0559370306
4.8447165129 -2.6887871494 0.4847602642
4.7636225620 -2.6437805174 -0.8628925501
4.8321799100 -2.6818294137 0.6785685363
4.7714305217 -2.6481138859 -0.6700376819
4.8258018268 -2.6782896177 0.8741558322
4.7767755046 -2.6510803177 -0.4779621159
4.8116367015 -2.6704280624 1.0696752789
4.7779725900 -2.6517446925 -0.2863823662
4.7965114623 -2.6620336499 1.2664744961
4.7977886365 -2.6627424735 -0.0957788111
4.6789316582 -2.5967775992 1.4338575780
3.4846775795 -1.9499153069 -1.0699579833
4.8024253825 -2.6872852797 0.0960580496
3.9947103609 -2.2353135123 -1.0568201035
4.7896026019 -2.6801100574 0.2876384292
4.7200492050 -2.6411901774 -1.0513576145
4.8040050727 -2.6881692243 0.4816226573
4.7819466897 -2.6758260511 -0.8678984533
4.7829458368 -2.6763851423 0.6729625462
4.7777488656 -2.6734770816 -0.6722313302
4.7681559278 -2.6681091772 0.8653955017
4.7935729227 -2.6823317233 -0.4805767883
4.7817267990 -2.6757030073 1.0650958628
4.7826308368 -2.6762088782 -0.2872197415
4.7514775429 -2.6587764808 1.2570265514
4.7710141700 -2.6697085591 -0.0954297629
4.6782681583 -2.6178108257 1.4364457685
3.4711194818 -1.9582705624 -1.0678874308
4.7755990514 -2.6942071828 0.0957090014
3.9885804120 -2.2502018866 -1.0572700056
4.7541249842 -2.6820923496 0.2860683504
4.7022512146 -2.6528271870 -1.0494495244
4.7598864296 -2.6853427329 0.4781364274
4.8173091214 -2.7177383815 -0.8760330458
4.7493691427 -2.6794092888 0.6695502045
4.8012370256 -2.7086711304 -0.6768623654
4.7330062118 -2.6701779598 0.8607024675
4.7859157028 -2.7000274361 -0.4807510998
4.7415791339 -2.6750144689 1.0582267386
4.7802178766 -2.6968129442 -0.2876384292
4.7218003005 -2.6638560207 1.2516277258
4.7668908110 -2.6892943324 -0.0955344774
4.6674190220 -2.6331762191 1.4359281304
3.4625835641 -1.9694198138 -1.0673697927
4.7592127323 -2.7069058925 0.0955693822
3.9840893935 -2.2660376122 -1.0581698099
4.7447339147 -2.6986707497 0.2860683504
4.6963756778 -2.6711659493 -1.0502127604
4.7487521222 -2.7009561927 0.4779621159
4.8129444481 -2.7374669761 -0.8769716527
4.7434384961 -2.6979339521 0.6700376819
4.8055570068 -2.7332652080 -0.6788122750
4.7185056523 -2.6837528542 0.8597638607
4.7833892638 -2.7206568214 -0.4814483458
4.7134409964 -2.6808722209 1.0540289405
4.7777196244 -2.7174320905 -0.2880571168
4.7277183237 -2.6889927617 1.2556768450
4.7661655631 -2.7108604665 -0.0957090014
4.6078221629 -2.6207992090 1.4203989870
3.4620449482 -1.9859425336 -1.0694403452
4.7631360830 -2.7322910829 0.0958486207
3.9689957347 -2.2767461322 -1.0563702014
4.7573329354 -2.7289622071 0.2874290853
4.6899597893 -2.6903147608 -1.0509759965
4.7405490050 -2.7193343942 0.4781364274
4.8816988347 -2.8003025660 -0.8913636241
4.7317963510 -2.7143135847 0.6697939432
4.8850459416 -2.8022225764 -0.6914866873
4.7206319023 -2.7079092908 0.8619539433
4.8615254652 -2.7887304596 -0.4903382320
4.7035834924 -2.6981297637 1.0540289405
4.8075742519 -2.7577822741 -0.2904645709
4.7178309606 -2.7063025788 1.2556768450
4.7926238155 -2.7492062135 -0.0964420026
4.4892635122 -2.5751887936 1.3867525095
3.4571127315 -1.9983791179 -1.0699579833
4.8111808635 -2.7810962838 0.0970004796
3.9580495557 -2.2879449396 -1.0554703971
4.7724652533 -2.7587167801 0.2888944922
4.7660039473 -2.7549818314 0.4816226573
4.8416019716 -2.7986811622 -0.8857319831
4.7382368142 -2.7389310794 0.6719875915
4.8224492204 -2.7876099415 -0.6839307877
4.7167567071 -2.7265145339 0.8628925501
4.8350014710 -2.7948657522 -0.4885951171
4.7099076205 -2.7225554291 1.0574635026
4.8243398756 -2.7887028321 -0.2920346497
4.7003947409 -2.7170565225 1.2534273343
4.8232997070 -2.7881015641 -0.0972448133
4.4873891914 -2.5939289663 1.3888230620
3.4504670412 -2.0098320167 -1.0699579833
4.8002042804 -2.7960285185 0.0969655748
3.9571765221 -2.3049807388 -1.0572700056
4.7840009904 -2.7865904075 0.2901505552
4.6092455338 -2.6847986479 -1.0368561301
4.8084908102 -2.8008552659 0.4868520021
4.5916189091 -2.6745314712 -0.8416174619
4.8046023272 -2.7985902979 0.6827120942
4.5936183621 -2.6756961149 -0.6527322343
4.7640179834 -2.7749506826 0.8732172253
4.5984529015 -2.6785121430 -0.4655859999
4.7602292852 -2.7727438373 1.0708201329
4.6856286756 -2.7292903883 -0.2841842559
4.7469279216 -2.7649960437 1.2682741046
4.7068957738 -2.7416780722 -0.0950807148
4.4837709108 -2.6117120449 1.3903759763
3.4297513339 -2.0146378782 -1.0658168784
4.6157760560 -2.7113094724 0.0934401885
3.9503817925 -2.3204565047 -1.0577199078
4.6187631134 -2.7130640716 0.2807300826
4.5926027253 -2.6976974448 -1.0353296581
4.6641936022 -2.7397499665 0.4732557056
4.5630491807 -2.6803376759 -0.8381759035
4.6847672197 -2.7518349210 0.6671128175
4.5461241270 -2.6703958897 -0.6473699829
4.7095300428 -2.7663806173 0.8650826328
4.5439381503 -2.6691118458 -0.4610539010
4.7178709161 -2.7712800511 1.0635693907
4.5378228202 -2.6655196974 -0.2758105025
4.6997949271 -2.7606622049 1.2583762578
4.5278400908 -2.6596558365 -0.0916600430
4.4725023466 -2.6271504142 1.3898583382
3.4256685905 -2.0291640649 -1.0668521546
4.5215026168 -2.6782715219 0.0917298526
3.9468804066 -2.3378992095 -1.0590696142
4.5177122770 -2.6760263481 0.2751824710
4.5320096399 -2.6844952628 -1.0238811178
4.5186968643 -2.6766095595 0.4594850976
4.5158037231 -2.6748958334 -0.8312927867
4.5209346249 -2.6779350770 0.6451763346
4.5141028386 -2.6738883296 -0.6442013798
4.4988078491 -2.6648284798 0.8281640973
4.5049830650 -2.6684863135 -0.4580906056
4.4982264894 -2.6644841166 1.0162487576
4.5091202035 -2.6709369104 -0.2746591114
4.4917980499 -2.6606762881 1.2052878064
4.5025769970 -2.6670611007 -0.0913458996
4.4611812212 -2.6425406842 1.3893407001
3.4222387195 -2.0424926436 -1.0678874308
4.4885568239 -2.6789026263 0.0912411852
3.9290659624 -2.3449820373 -1.0563702014
4.4916633584 -2.6807566974 0.2741357518
4.5028528944 -2.6874349413 -1.0193017017
4.4755793381 -2.6711572813 0.4559988677
4.4797690280 -2.6736578114 -0.8262868836
4.4677105156 -2.6664609368 0.6388391285
4.4898700870 -2.6796864203 -0.6420077316
4.4712878295 -2.6685959829 0.8247225389
4.4790010348 -2.6731994505 -0.4563474907
4.4522779835 -2.6572503481 1.0078531614
4.4625078498 -2.6633558330 -0.2723563292
4.4595233347 -2.6615745866 1.1989891766
4.4610828724 -2.6625053646 -0.0906827082
4.4391230312 -2.6493990860 1.3851995952
3.4154466656 -2.0538301114 -1.0678874308
4.4556564719 -2.6793454338 0.0907525178
3.9145878339 -2.3539815298 -1.0545705929
4.4279768011 -2.6627006588 0.2707862505
4.4636314441 -2.6841410696 -1.0124325776
4.4479147569 -2.6746900640 0.4540814413
4.4471778886 -2.6742469587 -0.8219067184
4.4350267421 -2.6669400402 0.6354267867
4.4435327389 -2.6720550000 -0.6366454802
4.4336349030 -2.6661030776 0.8194037668
4.4342551339 -2.6664760446 -0.4526869493
4.4198868465 -2.6578358800 1.0025105093
4.4262651750 -2.6616713968 -0.2706815785
4.4089214512 -2.6512419961 1.1877416234
4.4470879018 -2.6741928464 -0.0905779937
4.4087903396 -2.6511631540 1.3784702997
3.4132130255 -2.0687435348 -1.0694403452
4.4223353186 -2.6803711139 0.0902638504
3.9113467732 -2.3706616871 -1.0559202992
4.4015751776 -2.6677884221 0.2697395313
4.3904351704 -2.6610364797 -0.9979310932
4.4129935138 -2.6747090594 0.4514667689
4.4158550506 -2.6764434327 -0.8178394221
4.4036214714 -2.6690286778 0.6322581836
4.3951333806 -2.6638840582 -0.6310394901
4.3922047175 -2.6621089996 0.8134592568
4.4061780798 -2.6705782346 -0.4507695229
4.3853983423 -2.6579836654 0.9967862392
4.3964511087 -2.6646827313 -0.2694255155
4.3696426243 -2.6484341472 1.1796433850
4.3915534022 -2.6617142384 -0.0896355637
4.3499467067 -2.6364964797 1.3629411562
3.3944307269 -2.0735959184 -1.0658168784
